ply
format ascii 1.0
element vertex 860
property double x
property double y
property double z
end_header
-2.676603078842163 -0.223346993327141 2.031389951705933
-2.650060892105103 -0.223346993327141 2.042835950851440
-2.621449947357178 -0.223346993327141 2.053287982940674
-2.590776920318604 -0.223346993327141 2.062789916992188
-2.558048963546753 -0.223346993327141 2.071387052536011
-2.523274898529053 -0.223346993327141 2.079125881195068
-2.486462116241455 -0.223346993327141 2.086050987243652
-2.447618961334229 -0.223346993327141 2.092206954956055
-2.406753063201904 -0.223346993327141 2.097640037536621
-2.363873004913330 -0.223346993327141 2.102395057678223
-2.318984985351562 -0.223346993327141 2.106515884399414
-2.272099018096924 -0.223346993327141 2.110049962997437
-2.223221063613892 -0.223346993327141 2.113042116165161
-2.172359943389893 -0.223346993327141 2.115535974502563
-2.119524002075195 -0.223346993327141 2.117578029632568
-2.064721107482910 -0.223346993327141 2.119213104248047
-2.007956981658936 -0.223346993327141 2.120486021041870
-1.949242949485779 -0.223346993327141 2.121443986892700
-1.888584017753601 -0.223346993327141 2.122128963470459
-1.825989961624146 -0.223346993327141 2.122589111328125
-1.761468052864075 -0.223346993327141 2.122868061065674
-1.695026040077209 -0.223346993327141 2.123011112213135
-1.626670956611633 -0.223346993327141 2.123064041137695
-1.556413054466248 -0.223346993327141 2.123070955276489
-2.818075895309448 -0.220407992601395 1.799999952316284
-2.817001104354858 -0.220407992601395 1.826115965843201
-2.813782930374146 -0.220407992601395 1.850739002227783
-2.808429956436157 -0.220407992601395 1.873914957046509
-2.800951004028320 -0.220407992601395 1.895686984062195
-2.791352987289429 -0.220407992601395 1.916097998619080
-2.779645919799805 -0.220407992601395 1.935192942619324
-2.765837907791138 -0.220407992601395 1.953016042709351
-2.749937057495117 -0.220407992601395 1.969609975814819
-2.731951951980591 -0.220407992601395 1.985018968582153
-2.711891889572144 -0.220407992601395 1.999287009239197
-2.689764976501465 -0.220407992601395 2.012458086013794
-2.665579080581665 -0.220407992601395 2.024575948715210
-2.639343023300171 -0.220407992601395 2.035685062408447
-2.611064910888672 -0.220407992601395 2.045829057693481
-2.580754041671753 -0.220407992601395 2.055051088333130
-2.548418045043945 -0.220407992601395 2.063395023345947
-2.514065980911255 -0.220407992601395 2.070905923843384
-2.477706909179688 -0.220407992601395 2.077626943588257
-2.439347982406616 -0.220407992601395 2.083601951599121
-2.398998975753784 -0.220407992601395 2.088875055313110
-2.356667041778564 -0.220407992601395 2.093488931655884
-2.312361955642700 -0.220407992601395 2.097490072250366
-2.266091108322144 -0.220407992601395 2.100919008255005
-2.217864036560059 -0.220407992601395 2.103822946548462
-2.167687892913818 -0.220407992601395 2.106244087219238
-2.115571975708008 -0.220407992601395 2.108226060867310
-2.061525106430054 -0.220407992601395 2.109812021255493
-2.005556106567383 -0.220407992601395 2.111047983169556
-1.947672009468079 -0.220407992601395 2.111977100372314
-1.887881994247437 -0.220407992601395 2.112643003463745
-1.826195001602173 -0.220407992601395 2.113089084625244
-1.762617945671082 -0.220407992601395 2.113358974456787
-1.697162032127380 -0.220407992601395 2.113497972488403
-1.629832983016968 -0.220407992601395 2.113548994064331
-1.560641050338745 -0.220407992601395 2.113557100296021
-2.805599927902222 -0.216000005602837 1.799999952316284
-2.804536104202271 -0.216000005602837 1.825335979461670
-2.801348924636841 -0.216000005602837 1.849225044250488
-2.796049118041992 -0.216000005602837 1.871709942817688
-2.788644075393677 -0.216000005602837 1.892832040786743
-2.779144048690796 -0.216000005602837 1.912634015083313
-2.767558097839355 -0.216000005602837 1.931159019470215
-2.753894090652466 -0.216000005602837 1.948449969291687
-2.738162994384766 -0.216000005602837 1.964547991752625
-2.720371961593628 -0.216000005602837 1.979498028755188
-2.700531959533691 -0.216000005602837 1.993340015411377
-2.678649902343750 -0.216000005602837 2.006118059158325
-2.654736995697021 -0.216000005602837 2.017874956130981
-2.628801107406616 -0.216000005602837 2.028651952743530
-2.600851058959961 -0.216000005602837 2.038492918014526
-2.570897102355957 -0.216000005602837 2.047440052032471
-2.538947105407715 -0.216000005602837 2.055535078048706
-2.505009889602661 -0.216000005602837 2.062822103500366
-2.469095945358276 -0.216000005602837 2.069341897964478
-2.431214094161987 -0.216000005602837 2.075139045715332
-2.391372919082642 -0.216000005602837 2.080254077911377
-2.349581003189087 -0.216000005602837 2.084731101989746
-2.305847883224487 -0.216000005602837 2.088612079620361
-2.260183095932007 -0.216000005602837 2.091939926147461
-2.212594985961914 -0.216000005602837 2.094757080078125
-2.163093090057373 -0.216000005602837 2.097105026245117
-2.111685991287231 -0.216000005602837 2.099028110504150
-2.058382987976074 -0.216000005602837 2.100567102432251
-2.003194093704224 -0.216000005602837 2.101766109466553
-1.946125984191895 -0.216000005602837 2.102668046951294
-1.887191057205200 -0.216000005602837 2.103312969207764
-1.826395034790039 -0.216000005602837 2.103745937347412
-1.763749957084656 -0.216000005602837 2.104007959365845
-1.699262022972107 -0.216000005602837 2.104142904281616
-1.632943034172058 -0.216000005602837 2.104192972183228
-1.564800024032593 -0.216000005602837 2.104199886322021
-2.793417930603027 -0.210122004151344 1.799999952316284
-2.792363882064819 -0.210122004151344 1.824574947357178
-2.789206981658936 -0.210122004151344 1.847746968269348
-2.783958911895752 -0.210122004151344 1.869555950164795
-2.776627063751221 -0.210122004151344 1.890043020248413
-2.767222881317139 -0.210122004151344 1.909250974655151
-2.755753993988037 -0.210122004151344 1.927219986915588
-2.742232084274292 -0.210122004151344 1.943990945816040
-2.726665973663330 -0.210122004151344 1.959606051445007
-2.709064960479736 -0.210122004151344 1.974105954170227
-2.689439058303833 -0.210122004151344 1.987532973289490
-2.667798042297363 -0.210122004151344 1.999927997589111
-2.644150972366333 -0.210122004151344 2.011331081390381
-2.618508100509644 -0.210122004151344 2.021785020828247
-2.590878009796143 -0.210122004151344 2.031330108642578
-2.561271905899048 -0.210122004151344 2.040008068084717
-2.529699087142944 -0.210122004151344 2.047859907150269
-2.496167898178101 -0.210122004151344 2.054928064346313
-2.460689067840576 -0.210122004151344 2.061253070831299
-2.423271894454956 -0.210122004151344 2.066874980926514
-2.383925914764404 -0.210122004151344 2.071836948394775
-2.342660903930664 -0.210122004151344 2.076179981231689
-2.299488067626953 -0.210122004151344 2.079943895339966
-2.254414081573486 -0.210122004151344 2.083172082901001
-2.207449913024902 -0.210122004151344 2.085903882980347
-2.158606052398682 -0.210122004151344 2.088181018829346
-2.107891082763672 -0.210122004151344 2.090046882629395
-2.055315017700195 -0.210122004151344 2.091540098190308
-2.000886917114258 -0.210122004151344 2.092703104019165
-1.944617986679077 -0.210122004151344 2.093576908111572
-1.886515974998474 -0.210122004151344 2.094202995300293
-1.826591014862061 -0.210122004151344 2.094623088836670
-1.764853954315186 -0.210122004151344 2.094877958297729
-1.701313018798828 -0.210122004151344 2.095009088516235
-1.635979056358337 -0.210122004151344 2.095057010650635
-1.568861007690430 -0.210122004151344 2.095062971115112
-2.781614065170288 -0.202775999903679 1.799999952316284
-2.780570030212402 -0.202775999903679 1.823837995529175
-2.777442932128906 -0.202775999903679 1.846313953399658
-2.772243976593018 -0.202775999903679 1.867468953132629
-2.764982938766479 -0.202775999903679 1.887341976165771
-2.755671024322510 -0.202775999903679 1.905972957611084
-2.744317054748535 -0.202775999903679 1.923403024673462
-2.730931997299194 -0.202775999903679 1.939671039581299
-2.715524911880493 -0.202775999903679 1.954817056655884
-2.698107957839966 -0.202775999903679 1.968883037567139
-2.678689956665039 -0.202775999903679 1.981906056404114
-2.657282114028931 -0.202775999903679 1.993929028511047
-2.633893013000488 -0.202775999903679 2.004990100860596
-2.608534097671509 -0.202775999903679 2.015130043029785
-2.581214904785156 -0.202775999903679 2.024389028549194
-2.551945924758911 -0.202775999903679 2.032807111740112
-2.520736932754517 -0.202775999903679 2.040422916412354
-2.487598896026611 -0.202775999903679 2.047278881072998
-2.452542066574097 -0.202775999903679 2.053414106369019
-2.415575981140137 -0.202775999903679 2.058867931365967
-2.376710891723633 -0.202775999903679 2.063680887222290
-2.335957050323486 -0.202775999903679 2.067893028259277
-2.293323993682861 -0.202775999903679 2.071543931961060
-2.248823881149292 -0.202775999903679 2.074675083160400
-2.202465057373047 -0.202775999903679 2.077325105667114
-2.154258012771606 -0.202775999903679 2.079535007476807
-2.104213953018188 -0.202775999903679 2.081343889236450
-2.052341938018799 -0.202775999903679 2.082792997360229
-1.998651981353760 -0.202775999903679 2.083920955657959
-1.943156003952026 -0.202775999903679 2.084769010543823
-1.885861992835999 -0.202775999903679 2.085376024246216
-1.826781988143921 -0.202775999903679 2.085783004760742
-1.765923976898193 -0.202775999903679 2.086030006408691
-1.703300952911377 -0.202775999903679 2.086157083511353
-1.638921022415161 -0.202775999903679 2.086204051971436
-1.572795033454895 -0.202775999903679 2.086210012435913
-2.770272016525269 -0.193958997726440 1.799999952316284
-2.769237041473389 -0.193958997726440 1.823130011558533
-2.766138076782227 -0.193958997726440 1.844938039779663
-2.760987043380737 -0.193958997726440 1.865463972091675
-2.753794908523560 -0.193958997726440 1.884745955467224
-2.744570970535278 -0.193958997726440 1.902822971343994
-2.733326911926270 -0.193958997726440 1.919734954833984
-2.720072984695435 -0.193958997726440 1.935518980026245
-2.704821109771729 -0.193958997726440 1.950216054916382
-2.687580108642578 -0.193958997726440 1.963863015174866
-2.668361902236938 -0.193958997726440 1.976500034332275
-2.647176980972290 -0.193958997726440 1.988165020942688
-2.624036073684692 -0.193958997726440 1.998896956443787
-2.598949909210205 -0.193958997726440 2.008735895156860
-2.571928977966309 -0.193958997726440 2.017719984054565
-2.542984008789062 -0.193958997726440 2.025887012481689
-2.512125968933105 -0.193958997726440 2.033277988433838
-2.479366064071655 -0.193958997726440 2.039930105209351
-2.444714069366455 -0.193958997726440 2.045881986618042
-2.408180952072144 -0.193958997726440 2.051173925399780
-2.369776964187622 -0.193958997726440 2.055844068527222
-2.329514026641846 -0.193958997726440 2.059931039810181
-2.287401914596558 -0.193958997726440 2.063473939895630
-2.243452072143555 -0.193958997726440 2.066510915756226
-2.197674989700317 -0.193958997726440 2.069082975387573
-2.150080919265747 -0.193958997726440 2.071227073669434
-2.100680112838745 -0.193958997726440 2.072982072830200
-2.049484968185425 -0.193958997726440 2.074388027191162
-1.996505022048950 -0.193958997726440 2.075481891632080
-1.941751003265381 -0.193958997726440 2.076304912567139
-1.885233998298645 -0.193958997726440 2.076894044876099
-1.826964020729065 -0.193958997726440 2.077289104461670
-1.766952991485596 -0.193958997726440 2.077528953552246
-1.705211043357849 -0.193958997726440 2.077651977539062
-1.641747951507568 -0.193958997726440 2.077697038650513
-1.576575994491577 -0.193958997726440 2.077703952789307
-2.759474992752075 -0.183672994375229 1.799999952316284
-2.758449077606201 -0.183672994375229 1.822455048561096
-2.755378007888794 -0.183672994375229 1.843626976013184
-2.750272989273071 -0.183672994375229 1.863554954528809
-2.743144989013672 -0.183672994375229 1.882274985313416
-2.734004974365234 -0.183672994375229 1.899824976921082
-2.722866058349609 -0.183672994375229 1.916244029998779
-2.709738016128540 -0.183672994375229 1.931568026542664
-2.694632053375244 -0.183672994375229 1.945835947990417
-2.677558898925781 -0.183672994375229 1.959084987640381
-2.658530950546265 -0.183672994375229 1.971353054046631
-2.637558937072754 -0.183672994375229 1.982678055763245
-2.614654064178467 -0.183672994375229 1.993098020553589
-2.589827060699463 -0.183672994375229 2.002650022506714
-2.563090085983276 -0.183672994375229 2.011370897293091
-2.534454107284546 -0.183672994375229 2.019300937652588
-2.503930091857910 -0.183672994375229 2.026475906372070
-2.471529006958008 -0.183672994375229 2.032933950424194
-2.437263011932373 -0.183672994375229 2.038712978363037
-2.401141881942749 -0.183672994375229 2.043849945068359
-2.363178014755249 -0.183672994375229 2.048383951187134
-2.323381900787354 -0.183672994375229 2.052351951599121
-2.281764984130859 -0.183672994375229 2.055790901184082
-2.238338947296143 -0.183672994375229 2.058739900588989
-2.193114995956421 -0.183672994375229 2.061237096786499
-2.146104097366333 -0.183672994375229 2.063318014144897
-2.097316980361938 -0.183672994375229 2.065021991729736
-2.046766042709351 -0.183672994375229 2.066386938095093
-1.994461059570312 -0.183672994375229 2.067450046539307
-1.940413951873779 -0.183672994375229 2.068248033523560
-1.884636044502258 -0.183672994375229 2.068819999694824
-1.827137947082520 -0.183672994375229 2.069204092025757
-1.767932057380676 -0.183672994375229 2.069437026977539
-1.707028985023499 -0.183672994375229 2.069555997848511
-1.644438982009888 -0.183672994375229 2.069600105285645
-1.580175042152405 -0.183672994375229 2.069606065750122
-2.749308109283447 -0.171918004751205 1.799999952316284
-2.748291015625000 -0.171918004751205 1.821820020675659
-2.745244979858398 -0.171918004751205 1.842393994331360
-2.740181922912598 -0.171918004751205 1.861757040023804
-2.733115911483765 -0.171918004751205 1.879948019981384
-2.724056005477905 -0.171918004751205 1.897001981735229
-2.713015079498291 -0.171918004751205 1.912955999374390
-2.700005054473877 -0.171918004751205 1.927847027778625
-2.685035943984985 -0.171918004751205 1.941710948944092
-2.668122053146362 -0.171918004751205 1.954586029052734
-2.649272918701172 -0.171918004751205 1.966506958007812
-2.628500938415527 -0.171918004751205 1.977512001991272
-2.605818986892700 -0.171918004751205 1.987637042999268
-2.581237077713013 -0.171918004751205 1.996917963027954
-2.554766893386841 -0.171918004751205 2.005393028259277
-2.526422023773193 -0.171918004751205 2.013098001480103
-2.496212005615234 -0.171918004751205 2.020071029663086
-2.464148998260498 -0.171918004751205 2.026345968246460
-2.430246114730835 -0.171918004751205 2.031960964202881
-2.394512891769409 -0.171918004751205 2.036952972412109
-2.356962919235229 -0.171918004751205 2.041358947753906
-2.317606925964355 -0.171918004751205 2.045214891433716
-2.276457071304321 -0.171918004751205 2.048557043075562
-2.233525037765503 -0.171918004751205 2.051423072814941
-2.188822031021118 -0.171918004751205 2.053848981857300
-2.142359018325806 -0.171918004751205 2.055871009826660
-2.094150066375732 -0.171918004751205 2.057527065277100
-2.044204950332642 -0.171918004751205 2.058852910995483
-1.992535948753357 -0.171918004751205 2.059885978698730
-1.939154028892517 -0.171918004751205 2.060662031173706
-1.884071946144104 -0.171918004751205 2.061218023300171
-1.827301979064941 -0.171918004751205 2.061589956283569
-1.768854022026062 -0.171918004751205 2.061815977096558
-1.708739995956421 -0.171918004751205 2.061933040618896
-1.646973013877869 -0.171918004751205 2.061975002288818
-1.583564043045044 -0.171918004751205 2.061980962753296
-2.739855051040649 -0.158693999052048 1.799999952316284
-2.738845109939575 -0.158693999052048 1.821230053901672
-2.735822916030884 -0.158693999052048 1.841246008872986
-2.730801105499268 -0.158693999052048 1.860085964202881
-2.723790884017944 -0.158693999052048 1.877784013748169
-2.714804887771606 -0.158693999052048 1.894376993179321
-2.703855991363525 -0.158693999052048 1.909898996353149
-2.690954923629761 -0.158693999052048 1.924386978149414
-2.676115036010742 -0.158693999052048 1.937875986099243
-2.659348011016846 -0.158693999052048 1.950402021408081
-2.640665054321289 -0.158693999052048 1.962000966072083
-2.620079994201660 -0.158693999052048 1.972707986831665
-2.597604036331177 -0.158693999052048 1.982558965682983
-2.573249101638794 -0.158693999052048 1.991588950157166
-2.547028064727783 -0.158693999052048 1.999835014343262
-2.518953084945679 -0.158693999052048 2.007332086563110
-2.489034891128540 -0.158693999052048 2.014115095138550
-2.457287073135376 -0.158693999052048 2.020220041275024
-2.423722028732300 -0.158693999052048 2.025684118270874
-2.388350009918213 -0.158693999052048 2.030540943145752
-2.351185083389282 -0.158693999052048 2.034826993942261
-2.312237977981567 -0.158693999052048 2.038578987121582
-2.271522045135498 -0.158693999052048 2.041830062866211
-2.229048013687134 -0.158693999052048 2.044619083404541
-2.184828996658325 -0.158693999052048 2.046978950500488
-2.138878107070923 -0.158693999052048 2.048947095870972
-2.091204881668091 -0.158693999052048 2.050558090209961
-2.041824102401733 -0.158693999052048 2.051847934722900
-1.990746021270752 -0.158693999052048 2.052851915359497
-1.937983989715576 -0.158693999052048 2.053606986999512
-1.883548974990845 -0.158693999052048 2.054147958755493
-1.827453970909119 -0.158693999052048 2.054511070251465
-1.769711017608643 -0.158693999052048 2.054730892181396
-1.710332036018372 -0.158693999052048 2.054843902587891
-1.649328947067261 -0.158693999052048 2.054886102676392
-1.586714982986450 -0.158693999052048 2.054892063140869
-2.731199979782104 -0.143999993801117 1.799999952316284
-2.730196952819824 -0.143999993801117 1.820688962936401
-2.727195978164673 -0.143999993801117 1.840196013450623
-2.722210884094238 -0.143999993801117 1.858556032180786
-2.715253114700317 -0.143999993801117 1.875802993774414
-2.706335067749023 -0.143999993801117 1.891973018646240
-2.695468902587891 -0.143999993801117 1.907099962234497
-2.682668924331665 -0.143999993801117 1.921218991279602
-2.667946100234985 -0.143999993801117 1.934365034103394
-2.651314020156860 -0.143999993801117 1.946571946144104
-2.632783889770508 -0.143999993801117 1.957875013351440
-2.612369060516357 -0.143999993801117 1.968309998512268
-2.590081930160522 -0.143999993801117 1.977908968925476
-2.565936088562012 -0.143999993801117 1.986709952354431
-2.539942979812622 -0.143999993801117 1.994745969772339
-2.512114048004150 -0.143999993801117 2.002051115036011
-2.482464075088501 -0.143999993801117 2.008661985397339
-2.451004981994629 -0.143999993801117 2.014611959457397
-2.417747974395752 -0.143999993801117 2.019936084747314
-2.382707118988037 -0.143999993801117 2.024668931961060
-2.345894098281860 -0.143999993801117 2.028846979141235
-2.307322025299072 -0.143999993801117 2.032501935958862
-2.267003059387207 -0.143999993801117 2.035670995712280
-2.224948883056641 -0.143999993801117 2.038388967514038
-2.181174039840698 -0.143999993801117 2.040688991546631
-2.135689973831177 -0.143999993801117 2.042606115341187
-2.088509082794189 -0.143999993801117 2.044177055358887
-2.039644002914429 -0.143999993801117 2.045433998107910
-1.989107012748718 -0.143999993801117 2.046412944793701
-1.936911940574646 -0.143999993801117 2.047148942947388
-1.883069038391113 -0.143999993801117 2.047676086425781
-1.827592968940735 -0.143999993801117 2.048028945922852
-1.770496010780334 -0.143999993801117 2.048243999481201
-1.711789011955261 -0.143999993801117 2.048353910446167
-1.651486992835999 -0.143999993801117 2.048393964767456
-1.589599967002869 -0.143999993801117 2.048399925231934
-2.723426103591919 -0.127837002277374 1.799999952316284
-2.722429990768433 -0.127837002277374 1.820202946662903
-2.719449043273926 -0.127837002277374 1.839251995086670
-2.714495897293091 -0.127837002277374 1.857180953025818
-2.707583904266357 -0.127837002277374 1.874024033546448
-2.698726892471313 -0.127837002277374 1.889814019203186
-2.687937021255493 -0.127837002277374 1.904585957527161
-2.675226926803589 -0.127837002277374 1.918373942375183
-2.660609006881714 -0.127837002277374 1.931210994720459
-2.644098043441772 -0.127837002277374 1.943132042884827
-2.625705003738403 -0.127837002277374 1.954169988632202
-2.605443954467773 -0.127837002277374 1.964359045028687
-2.583327054977417 -0.127837002277374 1.973734021186829
-2.559366941452026 -0.127837002277374 1.982328057289124
-2.533577919006348 -0.127837002277374 1.990175008773804
-2.505971908569336 -0.127837002277374 1.997308969497681
-2.476562976837158 -0.127837002277374 2.003763914108276
-2.445362091064453 -0.127837002277374 2.009574890136719
-2.412383079528809 -0.127837002277374 2.014774084091187
-2.377639055252075 -0.127837002277374 2.019396066665649
-2.341141939163208 -0.127837002277374 2.023474931716919
-2.302906036376953 -0.127837002277374 2.027045011520386
-2.262943983078003 -0.127837002277374 2.030139923095703
-2.221267938613892 -0.127837002277374 2.032793045043945
-2.177891016006470 -0.127837002277374 2.035038948059082
-2.132827043533325 -0.127837002277374 2.036911964416504
-2.086086988449097 -0.127837002277374 2.038444995880127
-2.037686109542847 -0.127837002277374 2.039673089981079
-1.987635016441345 -0.127837002277374 2.040628910064697
-1.935948967933655 -0.127837002277374 2.041347980499268
-1.882639050483704 -0.127837002277374 2.041862010955811
-1.827718019485474 -0.127837002277374 2.042207002639771
-1.771201014518738 -0.127837002277374 2.042417049407959
-1.713098049163818 -0.127837002277374 2.042524099349976
-1.653424024581909 -0.127837002277374 2.042563915252686
-1.592190980911255 -0.127837002277374 2.042570114135742
-2.716618061065674 -0.110203996300697 1.799999952316284
-2.715626955032349 -0.110203996300697 1.819777965545654
-2.712662935256958 -0.110203996300697 1.838425993919373
-2.707739114761353 -0.110203996300697 1.855978012084961
-2.700869083404541 -0.110203996300697 1.872465968132019
-2.692065000534058 -0.110203996300697 1.887923955917358
-2.681339979171753 -0.110203996300697 1.902384996414185
-2.668709039688110 -0.110203996300697 1.915881991386414
-2.654184103012085 -0.110203996300697 1.928449034690857
-2.637778997421265 -0.110203996300697 1.940119028091431
-2.619504928588867 -0.110203996300697 1.950924038887024
-2.599378108978271 -0.110203996300697 1.960898995399475
-2.577409982681274 -0.110203996300697 1.970077037811279
-2.553615093231201 -0.110203996300697 1.978489995002747
-2.528004884719849 -0.110203996300697 1.986171007156372
-2.500592947006226 -0.110203996300697 1.993155002593994
-2.471394062042236 -0.110203996300697 1.999475002288818
-2.440419912338257 -0.110203996300697 2.005162954330444
-2.407684087753296 -0.110203996300697 2.010252952575684
-2.373199939727783 -0.110203996300697 2.014777898788452
-2.336980104446411 -0.110203996300697 2.018770933151245
-2.299038887023926 -0.110203996300697 2.022265911102295
-2.259388923645020 -0.110203996300697 2.025295019149780
-2.218044042587280 -0.110203996300697 2.027893066406250
-2.175015926361084 -0.110203996300697 2.030092000961304
-2.130319118499756 -0.110203996300697 2.031924962997437
-2.083966016769409 -0.110203996300697 2.033426046371460
-2.035970926284790 -0.110203996300697 2.034627914428711
-1.986346006393433 -0.110203996300697 2.035563945770264
-1.935104966163635 -0.110203996300697 2.036267042160034
-1.882261991500854 -0.110203996300697 2.036771059036255
-1.827828049659729 -0.110203996300697 2.037108898162842
-1.771818041801453 -0.110203996300697 2.037313938140869
-1.714244008064270 -0.110203996300697 2.037419080734253
-1.655120968818665 -0.110203996300697 2.037457942962646
-1.594460964202881 -0.110203996300697 2.037463903427124
-2.710860013961792 -0.091101996600628 1.799999952316284
-2.709872961044312 -0.091101996600628 1.819417953491211
-2.706923961639404 -0.091101996600628 1.837726950645447
-2.702023983001709 -0.091101996600628 1.854959964752197
-2.695188045501709 -0.091101996600628 1.871147990226746
-2.686429023742676 -0.091101996600628 1.886325001716614
-2.675760984420776 -0.091101996600628 1.900522947311401
-2.663196086883545 -0.091101996600628 1.913774967193604
-2.648749113082886 -0.091101996600628 1.926113009452820
-2.632432937622070 -0.091101996600628 1.937569975852966
-2.614262104034424 -0.091101996600628 1.948179006576538
-2.594248056411743 -0.091101996600628 1.957973003387451
-2.572406053543091 -0.091101996600628 1.966982960700989
-2.548748970031738 -0.091101996600628 1.975242972373962
-2.523289918899536 -0.091101996600628 1.982784986495972
-2.496042966842651 -0.091101996600628 1.989642024040222
-2.467021942138672 -0.091101996600628 1.995846986770630
-2.436239004135132 -0.091101996600628 2.001430988311768
-2.403708934783936 -0.091101996600628 2.006428956985474
-2.369445085525513 -0.091101996600628 2.010870933532715
-2.333460092544556 -0.091101996600628 2.014791965484619
-2.295768022537231 -0.091101996600628 2.018223047256470
-2.256381988525391 -0.091101996600628 2.021198034286499
-2.215317010879517 -0.091101996600628 2.023747920989990
-2.172584056854248 -0.091101996600628 2.025907039642334
-2.128197908401489 -0.091101996600628 2.027707099914551
-2.082171916961670 -0.091101996600628 2.029181003570557
-2.034521102905273 -0.091101996600628 2.030359983444214
-1.985255956649780 -0.091101996600628 2.031280040740967
-1.934391975402832 -0.091101996600628 2.031970024108887
-1.881942987442017 -0.091101996600628 2.032464981079102
-1.827921032905579 -0.091101996600628 2.032797098159790
-1.772340059280396 -0.091101996600628 2.032998085021973
-1.715214014053345 -0.091101996600628 2.033101081848145
-1.656556010246277 -0.091101996600628 2.033138990402222
-1.596379995346069 -0.091101996600628 2.033144950866699
-2.706233978271484 -0.070531003177166 1.799999952316284
-2.705251932144165 -0.070531003177166 1.819128990173340
-2.702313899993896 -0.070531003177166 1.837165951728821
-2.697433948516846 -0.070531003177166 1.854141950607300
-2.690625905990601 -0.070531003177166 1.870089054107666
-2.681902885437012 -0.070531003177166 1.885040044784546
-2.671278953552246 -0.070531003177166 1.899026989936829
-2.658767938613892 -0.070531003177166 1.912081956863403
-2.644383907318115 -0.070531003177166 1.924237012863159
-2.628139972686768 -0.070531003177166 1.935523986816406
-2.610049962997437 -0.070531003177166 1.945974946022034
-2.590127944946289 -0.070531003177166 1.955621957778931
-2.568387031555176 -0.070531003177166 1.964498996734619
-2.544841051101685 -0.070531003177166 1.972635984420776
-2.519504070281982 -0.070531003177166 1.980065941810608
-2.492388963699341 -0.070531003177166 1.986821055412292
-2.463510990142822 -0.070531003177166 1.992933034896851
-2.432882070541382 -0.070531003177166 1.998435020446777
-2.400516986846924 -0.070531003177166 2.003356933593750
-2.366430044174194 -0.070531003177166 2.007734060287476
-2.330632925033569 -0.070531003177166 2.011595964431763
-2.293140888214111 -0.070531003177166 2.014976978302002
-2.253968000411987 -0.070531003177166 2.017906904220581
-2.213125944137573 -0.070531003177166 2.020418882369995
-2.170630931854248 -0.070531003177166 2.022546052932739
-2.126493930816650 -0.070531003177166 2.024318933486938
-2.080732107162476 -0.070531003177166 2.025770902633667
-2.033355951309204 -0.070531003177166 2.026932954788208
-1.984380006790161 -0.070531003177166 2.027837991714478
-1.933819055557251 -0.070531003177166 2.028518915176392
-1.881685972213745 -0.070531003177166 2.029006004333496
-1.827994942665100 -0.070531003177166 2.029333114624023
-1.772758960723877 -0.070531003177166 2.029531002044678
-1.715993046760559 -0.070531003177166 2.029633045196533
-1.657709002494812 -0.070531003177166 2.029670000076294
-1.597921967506409 -0.070531003177166 2.029675960540771
-2.702826976776123 -0.048489999026060 1.799999952316284
-2.701847076416016 -0.048489999026060 1.818917036056519
-2.698918104171753 -0.048489999026060 1.836752057075500
-2.694051980972290 -0.048489999026060 1.853538990020752
-2.687263965606689 -0.048489999026060 1.869308948516846
-2.678567886352539 -0.048489999026060 1.884093999862671
-2.667978048324585 -0.048489999026060 1.897925019264221
-2.655505895614624 -0.048489999026060 1.910835027694702
-2.641168117523193 -0.048489999026060 1.922853946685791
-2.624977111816406 -0.048489999026060 1.934015035629272
-2.606946945190430 -0.048489999026060 1.944350004196167
-2.587091922760010 -0.048489999026060 1.953891038894653
-2.565426111221313 -0.048489999026060 1.962667942047119
-2.541961908340454 -0.048489999026060 1.970715045928955
-2.516714096069336 -0.048489999026060 1.978062033653259
-2.489696979522705 -0.048489999026060 1.984742045402527
-2.460923910140991 -0.048489999026060 1.990785956382751
-2.430408954620361 -0.048489999026060 1.996225953102112
-2.398164987564087 -0.048489999026060 2.001095056533813
-2.364207983016968 -0.048489999026060 2.005423069000244
-2.328550100326538 -0.048489999026060 2.009242057800293
-2.291205883026123 -0.048489999026060 2.012583971023560
-2.252187967300415 -0.048489999026060 2.015481948852539
-2.211513042449951 -0.048489999026060 2.017966985702515
-2.169192075729370 -0.048489999026060 2.020068883895874
-2.125238895416260 -0.048489999026060 2.021822929382324
-2.079669952392578 -0.048489999026060 2.023257970809937
-2.032496929168701 -0.048489999026060 2.024408102035522
-1.983734965324402 -0.048489999026060 2.025302886962891
-1.933397054672241 -0.048489999026060 2.025975942611694
-1.881497979164124 -0.048489999026060 2.026458024978638
-1.828050017356873 -0.048489999026060 2.026781082153320
-1.773067951202393 -0.048489999026060 2.026977062225342
-1.716567039489746 -0.048489999026060 2.027077913284302
-1.658558011054993 -0.048489999026060 2.027115106582642
-1.599058032035828 -0.048489999026060 2.027120113372803
-2.700721025466919 -0.024979999288917 1.799999952316284
-2.699743032455444 -0.024979999288917 1.818784952163696
-2.696819067001343 -0.024979999288917 1.836496949195862
-2.691962003707886 -0.024979999288917 1.853167057037354
-2.685187101364136 -0.024979999288917 1.868826985359192
-2.676506996154785 -0.024979999288917 1.883509039878845
-2.665936946868896 -0.024979999288917 1.897243976593018
-2.653490066528320 -0.024979999288917 1.910063982009888
-2.639179944992065 -0.024979999288917 1.922000050544739
-2.623022079467773 -0.024979999288917 1.933083057403564
-2.605029106140137 -0.024979999288917 1.943346977233887
-2.585216045379639 -0.024979999288917 1.952819943428040
-2.563595056533813 -0.024979999288917 1.961537003517151
-2.540182113647461 -0.024979999288917 1.969527959823608
-2.514990091323853 -0.024979999288917 1.976824045181274
-2.488033056259155 -0.024979999288917 1.983456969261169
-2.459325075149536 -0.024979999288917 1.989459037780762
-2.428879976272583 -0.024979999288917 1.994861960411072
-2.396712064743042 -0.024979999288917 1.999696016311646
-2.362834930419922 -0.024979999288917 2.003993988037109
-2.327263116836548 -0.024979999288917 2.007786989212036
-2.290009021759033 -0.024979999288917 2.011106014251709
-2.251089096069336 -0.024979999288917 2.013983011245728
-2.210515022277832 -0.024979999288917 2.016449928283691
-2.168302059173584 -0.024979999288917 2.018538951873779
-2.124464035034180 -0.024979999288917 2.020279884338379
-2.079014062881470 -0.024979999288917 2.021706104278564
-2.031966924667358 -0.024979999288917 2.022846937179565
-1.983335971832275 -0.024979999288917 2.023736000061035
-1.933135986328125 -0.024979999288917 2.024404048919678
-1.881381034851074 -0.024979999288917 2.024883031845093
-1.828083992004395 -0.024979999288917 2.025203943252563
-1.773259043693542 -0.024979999288917 2.025398015975952
-1.716920971870422 -0.024979999288917 2.025497913360596
-1.659083008766174 -0.024979999288917 2.025535106658936
-1.599760055541992 -0.024979999288917 2.025541067123413
-2.700000047683716 0.000000000000000 1.799999952316284
-2.699023008346558 0.000000000000000 1.818740010261536
-2.696099996566772 0.000000000000000 1.836408972740173
-2.691246986389160 0.000000000000000 1.853039979934692
-2.684475898742676 0.000000000000000 1.868661999702454
-2.675801992416382 0.000000000000000 1.883309006690979
-2.665237903594971 0.000000000000000 1.897011041641235
-2.652800083160400 0.000000000000000 1.909800052642822
-2.638499975204468 0.000000000000000 1.921707034111023
-2.622353076934814 0.000000000000000 1.932764053344727
-2.604372978210449 0.000000000000000 1.943003058433533
-2.584573984146118 0.000000000000000 1.952453970909119
-2.562968969345093 0.000000000000000 1.961150050163269
-2.539572954177856 0.000000000000000 1.969120979309082
-2.514400005340576 0.000000000000000 1.976400017738342
-2.487462997436523 0.000000000000000 1.983016967773438
-2.458777904510498 0.000000000000000 1.989004969596863
-2.428356885910034 0.000000000000000 1.994395017623901
-2.396214008331299 0.000000000000000 1.999217987060547
-2.362365007400513 0.000000000000000 2.003504991531372
-2.326822042465210 0.000000000000000 2.007288932800293
-2.289599895477295 0.000000000000000 2.010600090026855
-2.250713109970093 0.000000000000000 2.013470888137817
-2.210174083709717 0.000000000000000 2.015932083129883
-2.167998075485229 0.000000000000000 2.018014907836914
-2.124197959899902 0.000000000000000 2.019752025604248
-2.078788995742798 0.000000000000000 2.021173954010010
-2.031785011291504 0.000000000000000 2.022313117980957
-1.983199954032898 0.000000000000000 2.023200035095215
-1.933047056198120 0.000000000000000 2.023865938186646
-1.881340980529785 0.000000000000000 2.024343967437744
-1.828096032142639 0.000000000000000 2.024663925170898
-1.773324966430664 0.000000000000000 2.024857997894287
-1.717043042182922 0.000000000000000 2.024957895278931
-1.659263014793396 0.000000000000000 2.024995088577271
-1.600000023841858 0.000000000000000 2.025000095367432
-2.700000047683716 0.000000000000000 1.799999952316284
-2.699023008346558 0.000000000000000 1.818740010261536
-2.696099996566772 0.000000000000000 1.836408972740173
-2.691246986389160 0.000000000000000 1.853039979934692
-2.684475898742676 0.000000000000000 1.868661999702454
-2.675801992416382 0.000000000000000 1.883309006690979
-2.665237903594971 0.000000000000000 1.897011041641235
-2.652800083160400 0.000000000000000 1.909800052642822
-2.638499975204468 0.000000000000000 1.921707034111023
-2.622353076934814 0.000000000000000 1.932764053344727
-2.604372978210449 0.000000000000000 1.943003058433533
-2.584573984146118 0.000000000000000 1.952453970909119
-2.562968969345093 0.000000000000000 1.961150050163269
-2.539572954177856 0.000000000000000 1.969120979309082
-2.514400005340576 0.000000000000000 1.976400017738342
-2.487462997436523 0.000000000000000 1.983016967773438
-2.458777904510498 0.000000000000000 1.989004969596863
-2.428356885910034 0.000000000000000 1.994395017623901
-2.396214008331299 0.000000000000000 1.999217987060547
-2.362365007400513 0.000000000000000 2.003504991531372
-2.326822042465210 0.000000000000000 2.007288932800293
-2.289599895477295 0.000000000000000 2.010600090026855
-2.250713109970093 0.000000000000000 2.013470888137817
-2.210174083709717 0.000000000000000 2.015932083129883
-2.167998075485229 0.000000000000000 2.018014907836914
-2.124197959899902 0.000000000000000 2.019752025604248
-2.078788995742798 0.000000000000000 2.021173954010010
-2.031785011291504 0.000000000000000 2.022313117980957
-1.983199954032898 0.000000000000000 2.023200035095215
-1.933047056198120 0.000000000000000 2.023865938186646
-1.881340980529785 0.000000000000000 2.024343967437744
-1.828096032142639 0.000000000000000 2.024663925170898
-1.773324966430664 0.000000000000000 2.024857997894287
-1.717043042182922 0.000000000000000 2.024957895278931
-1.659263014793396 0.000000000000000 2.024995088577271
-1.600000023841858 0.000000000000000 2.025000095367432
-2.700721025466919 0.024979999288917 1.799999952316284
-2.699743032455444 0.024979999288917 1.818784952163696
-2.696819067001343 0.024979999288917 1.836496949195862
-2.691962003707886 0.024979999288917 1.853167057037354
-2.685187101364136 0.024979999288917 1.868826985359192
-2.676506996154785 0.024979999288917 1.883509039878845
-2.665936946868896 0.024979999288917 1.897243976593018
-2.653490066528320 0.024979999288917 1.910063982009888
-2.639179944992065 0.024979999288917 1.922000050544739
-2.623022079467773 0.024979999288917 1.933083057403564
-2.605029106140137 0.024979999288917 1.943346977233887
-2.585216045379639 0.024979999288917 1.952819943428040
-2.563595056533813 0.024979999288917 1.961537003517151
-2.540182113647461 0.024979999288917 1.969527959823608
-2.514990091323853 0.024979999288917 1.976824045181274
-2.488033056259155 0.024979999288917 1.983456969261169
-2.459325075149536 0.024979999288917 1.989459037780762
-2.428879976272583 0.024979999288917 1.994861960411072
-2.396712064743042 0.024979999288917 1.999696016311646
-2.362834930419922 0.024979999288917 2.003993988037109
-2.327263116836548 0.024979999288917 2.007786989212036
-2.290009021759033 0.024979999288917 2.011106014251709
-2.251089096069336 0.024979999288917 2.013983011245728
-2.210515022277832 0.024979999288917 2.016449928283691
-2.168302059173584 0.024979999288917 2.018538951873779
-2.124464035034180 0.024979999288917 2.020279884338379
-2.079014062881470 0.024979999288917 2.021706104278564
-2.031966924667358 0.024979999288917 2.022846937179565
-1.983335971832275 0.024979999288917 2.023736000061035
-1.933135986328125 0.024979999288917 2.024404048919678
-1.881381034851074 0.024979999288917 2.024883031845093
-1.828083992004395 0.024979999288917 2.025203943252563
-1.773259043693542 0.024979999288917 2.025398015975952
-1.716920971870422 0.024979999288917 2.025497913360596
-1.659083008766174 0.024979999288917 2.025535106658936
-1.599760055541992 0.024979999288917 2.025541067123413
-2.702826976776123 0.048489999026060 1.799999952316284
-2.701847076416016 0.048489999026060 1.818917036056519
-2.698918104171753 0.048489999026060 1.836752057075500
-2.694051980972290 0.048489999026060 1.853538990020752
-2.687263965606689 0.048489999026060 1.869308948516846
-2.678567886352539 0.048489999026060 1.884093999862671
-2.667978048324585 0.048489999026060 1.897925019264221
-2.655505895614624 0.048489999026060 1.910835027694702
-2.641168117523193 0.048489999026060 1.922853946685791
-2.624977111816406 0.048489999026060 1.934015035629272
-2.606946945190430 0.048489999026060 1.944350004196167
-2.587091922760010 0.048489999026060 1.953891038894653
-2.565426111221313 0.048489999026060 1.962667942047119
-2.541961908340454 0.048489999026060 1.970715045928955
-2.516714096069336 0.048489999026060 1.978062033653259
-2.489696979522705 0.048489999026060 1.984742045402527
-2.460923910140991 0.048489999026060 1.990785956382751
-2.430408954620361 0.048489999026060 1.996225953102112
-2.398164987564087 0.048489999026060 2.001095056533813
-2.364207983016968 0.048489999026060 2.005423069000244
-2.328550100326538 0.048489999026060 2.009242057800293
-2.291205883026123 0.048489999026060 2.012583971023560
-2.252187967300415 0.048489999026060 2.015481948852539
-2.211513042449951 0.048489999026060 2.017966985702515
-2.169192075729370 0.048489999026060 2.020068883895874
-2.125238895416260 0.048489999026060 2.021822929382324
-2.079669952392578 0.048489999026060 2.023257970809937
-2.032496929168701 0.048489999026060 2.024408102035522
-1.983734965324402 0.048489999026060 2.025302886962891
-1.933397054672241 0.048489999026060 2.025975942611694
-1.881497979164124 0.048489999026060 2.026458024978638
-1.828050017356873 0.048489999026060 2.026781082153320
-1.773067951202393 0.048489999026060 2.026977062225342
-1.716567039489746 0.048489999026060 2.027077913284302
-1.658558011054993 0.048489999026060 2.027115106582642
-1.599058032035828 0.048489999026060 2.027120113372803
-2.706233978271484 0.070531003177166 1.799999952316284
-2.705251932144165 0.070531003177166 1.819128990173340
-2.702313899993896 0.070531003177166 1.837165951728821
-2.697433948516846 0.070531003177166 1.854141950607300
-2.690625905990601 0.070531003177166 1.870089054107666
-2.681902885437012 0.070531003177166 1.885040044784546
-2.671278953552246 0.070531003177166 1.899026989936829
-2.658767938613892 0.070531003177166 1.912081956863403
-2.644383907318115 0.070531003177166 1.924237012863159
-2.628139972686768 0.070531003177166 1.935523986816406
-2.610049962997437 0.070531003177166 1.945974946022034
-2.590127944946289 0.070531003177166 1.955621957778931
-2.568387031555176 0.070531003177166 1.964498996734619
-2.544841051101685 0.070531003177166 1.972635984420776
-2.519504070281982 0.070531003177166 1.980065941810608
-2.492388963699341 0.070531003177166 1.986821055412292
-2.463510990142822 0.070531003177166 1.992933034896851
-2.432882070541382 0.070531003177166 1.998435020446777
-2.400516986846924 0.070531003177166 2.003356933593750
-2.366430044174194 0.070531003177166 2.007734060287476
-2.330632925033569 0.070531003177166 2.011595964431763
-2.293140888214111 0.070531003177166 2.014976978302002
-2.253968000411987 0.070531003177166 2.017906904220581
-2.213125944137573 0.070531003177166 2.020418882369995
-2.170630931854248 0.070531003177166 2.022546052932739
-2.126493930816650 0.070531003177166 2.024318933486938
-2.080732107162476 0.070531003177166 2.025770902633667
-2.033355951309204 0.070531003177166 2.026932954788208
-1.984380006790161 0.070531003177166 2.027837991714478
-1.933819055557251 0.070531003177166 2.028518915176392
-1.881685972213745 0.070531003177166 2.029006004333496
-1.827994942665100 0.070531003177166 2.029333114624023
-1.772758960723877 0.070531003177166 2.029531002044678
-1.715993046760559 0.070531003177166 2.029633045196533
-1.657709002494812 0.070531003177166 2.029670000076294
-1.597921967506409 0.070531003177166 2.029675960540771
-2.710860013961792 0.091101996600628 1.799999952316284
-2.709872961044312 0.091101996600628 1.819417953491211
-2.706923961639404 0.091101996600628 1.837726950645447
-2.702023983001709 0.091101996600628 1.854959964752197
-2.695188045501709 0.091101996600628 1.871147990226746
-2.686429023742676 0.091101996600628 1.886325001716614
-2.675760984420776 0.091101996600628 1.900522947311401
-2.663196086883545 0.091101996600628 1.913774967193604
-2.648749113082886 0.091101996600628 1.926113009452820
-2.632432937622070 0.091101996600628 1.937569975852966
-2.614262104034424 0.091101996600628 1.948179006576538
-2.594248056411743 0.091101996600628 1.957973003387451
-2.572406053543091 0.091101996600628 1.966982960700989
-2.548748970031738 0.091101996600628 1.975242972373962
-2.523289918899536 0.091101996600628 1.982784986495972
-2.496042966842651 0.091101996600628 1.989642024040222
-2.467021942138672 0.091101996600628 1.995846986770630
-2.436239004135132 0.091101996600628 2.001430988311768
-2.403708934783936 0.091101996600628 2.006428956985474
-2.369445085525513 0.091101996600628 2.010870933532715
-2.333460092544556 0.091101996600628 2.014791965484619
-2.295768022537231 0.091101996600628 2.018223047256470
-2.256381988525391 0.091101996600628 2.021198034286499
-2.215317010879517 0.091101996600628 2.023747920989990
-2.172584056854248 0.091101996600628 2.025907039642334
-2.128197908401489 0.091101996600628 2.027707099914551
-2.082171916961670 0.091101996600628 2.029181003570557
-2.034521102905273 0.091101996600628 2.030359983444214
-1.985255956649780 0.091101996600628 2.031280040740967
-1.934391975402832 0.091101996600628 2.031970024108887
-1.881942987442017 0.091101996600628 2.032464981079102
-1.827921032905579 0.091101996600628 2.032797098159790
-1.772340059280396 0.091101996600628 2.032998085021973
-1.715214014053345 0.091101996600628 2.033101081848145
-1.656556010246277 0.091101996600628 2.033138990402222
-1.596379995346069 0.091101996600628 2.033144950866699
-2.716618061065674 0.110203996300697 1.799999952316284
-2.715626955032349 0.110203996300697 1.819777965545654
-2.712662935256958 0.110203996300697 1.838425993919373
-2.707739114761353 0.110203996300697 1.855978012084961
-2.700869083404541 0.110203996300697 1.872465968132019
-2.692065000534058 0.110203996300697 1.887923955917358
-2.681339979171753 0.110203996300697 1.902384996414185
-2.668709039688110 0.110203996300697 1.915881991386414
-2.654184103012085 0.110203996300697 1.928449034690857
-2.637778997421265 0.110203996300697 1.940119028091431
-2.619504928588867 0.110203996300697 1.950924038887024
-2.599378108978271 0.110203996300697 1.960898995399475
-2.577409982681274 0.110203996300697 1.970077037811279
-2.553615093231201 0.110203996300697 1.978489995002747
-2.528004884719849 0.110203996300697 1.986171007156372
-2.500592947006226 0.110203996300697 1.993155002593994
-2.471394062042236 0.110203996300697 1.999475002288818
-2.440419912338257 0.110203996300697 2.005162954330444
-2.407684087753296 0.110203996300697 2.010252952575684
-2.373199939727783 0.110203996300697 2.014777898788452
-2.336980104446411 0.110203996300697 2.018770933151245
-2.299038887023926 0.110203996300697 2.022265911102295
-2.259388923645020 0.110203996300697 2.025295019149780
-2.218044042587280 0.110203996300697 2.027893066406250
-2.175015926361084 0.110203996300697 2.030092000961304
-2.130319118499756 0.110203996300697 2.031924962997437
-2.083966016769409 0.110203996300697 2.033426046371460
-2.035970926284790 0.110203996300697 2.034627914428711
-1.986346006393433 0.110203996300697 2.035563945770264
-1.935104966163635 0.110203996300697 2.036267042160034
-1.882261991500854 0.110203996300697 2.036771059036255
-1.827828049659729 0.110203996300697 2.037108898162842
-1.771818041801453 0.110203996300697 2.037313938140869
-1.714244008064270 0.110203996300697 2.037419080734253
-1.655120968818665 0.110203996300697 2.037457942962646
-1.594460964202881 0.110203996300697 2.037463903427124
-2.723426103591919 0.127837002277374 1.799999952316284
-2.722429990768433 0.127837002277374 1.820202946662903
-2.719449043273926 0.127837002277374 1.839251995086670
-2.714495897293091 0.127837002277374 1.857180953025818
-2.707583904266357 0.127837002277374 1.874024033546448
-2.698726892471313 0.127837002277374 1.889814019203186
-2.687937021255493 0.127837002277374 1.904585957527161
-2.675226926803589 0.127837002277374 1.918373942375183
-2.660609006881714 0.127837002277374 1.931210994720459
-2.644098043441772 0.127837002277374 1.943132042884827
-2.625705003738403 0.127837002277374 1.954169988632202
-2.605443954467773 0.127837002277374 1.964359045028687
-2.583327054977417 0.127837002277374 1.973734021186829
-2.559366941452026 0.127837002277374 1.982328057289124
-2.533577919006348 0.127837002277374 1.990175008773804
-2.505971908569336 0.127837002277374 1.997308969497681
-2.476562976837158 0.127837002277374 2.003763914108276
-2.445362091064453 0.127837002277374 2.009574890136719
-2.412383079528809 0.127837002277374 2.014774084091187
-2.377639055252075 0.127837002277374 2.019396066665649
-2.341141939163208 0.127837002277374 2.023474931716919
-2.302906036376953 0.127837002277374 2.027045011520386
-2.262943983078003 0.127837002277374 2.030139923095703
-2.221267938613892 0.127837002277374 2.032793045043945
-2.177891016006470 0.127837002277374 2.035038948059082
-2.132827043533325 0.127837002277374 2.036911964416504
-2.086086988449097 0.127837002277374 2.038444995880127
-2.037686109542847 0.127837002277374 2.039673089981079
-1.987635016441345 0.127837002277374 2.040628910064697
-1.935948967933655 0.127837002277374 2.041347980499268
-1.882639050483704 0.127837002277374 2.041862010955811
-1.827718019485474 0.127837002277374 2.042207002639771
-1.771201014518738 0.127837002277374 2.042417049407959
-1.713098049163818 0.127837002277374 2.042524099349976
-1.653424024581909 0.127837002277374 2.042563915252686
-1.592190980911255 0.127837002277374 2.042570114135742
-2.731199979782104 0.143999993801117 1.799999952316284
-2.730196952819824 0.143999993801117 1.820688962936401
-2.727195978164673 0.143999993801117 1.840196013450623
-2.722210884094238 0.143999993801117 1.858556032180786
-2.715253114700317 0.143999993801117 1.875802993774414
-2.706335067749023 0.143999993801117 1.891973018646240
-2.695468902587891 0.143999993801117 1.907099962234497
-2.682668924331665 0.143999993801117 1.921218991279602
